-189.510410 1728.356783 480.178391
-190.420618 1726.763918 479.381959
-191.330826 1725.171054 478.585527
-192.241035 1723.578190 477.789095
-193.151243 1721.985325 476.992663
-194.061451 1720.392461 476.196230
-194.971659 1718.799597 475.399798
-195.881867 1717.206732 474.603366
-196.792076 1715.613868 473.806934
-197.702284 1714.021004 473.010502
-198.612492 1712.428139 472.214070
-199.522700 1710.835275 471.417637
-200.432908 1709.242410 470.621205
-201.343116 1707.649546 469.824773
-202.253325 1706.056682 469.028341
-203.163533 1704.463817 468.231909
-204.073741 1702.870953 467.435477
-204.983949 1701.278089 466.639044
-205.894157 1699.685224 465.842612
-206.804366 1698.092360 465.046180
-208.000000 1696.000000 464.000000
-208.202031 1696.808122 465.818275
-208.404061 1697.616244 467.636549
-208.606092 1698.424366 469.454824
-208.808122 1699.232488 471.273098
-209.010153 1700.040610 473.091373
-209.212183 1700.848732 474.909647
-209.414214 1701.656854 476.727922
-209.616244 1702.464976 478.546197
-209.818275 1703.273098 480.364471
-210.020305 1704.081220 482.182746
-210.222336 1704.889342 484.001020
-210.424366 1705.697464 485.819295
-210.626397 1706.505586 487.637570
-210.828427 1707.313708 489.455844
-211.030458 1708.121831 491.274119
-211.232488 1708.929953 493.092393
-211.434519 1709.738075 494.910668
-211.636549 1710.546197 496.728942
-211.838580 1711.354319 498.547217
-212.040610 1712.162441 500.365492
-212.242641 1712.970563 502.183766
-212.444671 1713.778685 504.002041
-212.646702 1714.586807 505.820315
-212.848732 1715.394929 507.638590
-213.050763 1716.203051 509.456865
-213.252793 1717.011173 511.275139
-213.454824 1717.819295 513.093414
-213.656854 1718.627417 514.911688
-213.858885 1719.435539 516.729963
-214.060915 1720.243661 518.548237
-214.262946 1721.051783 520.366512
-214.464976 1721.859905 522.184787
-214.667007 1722.668027 524.003061
-214.869037 1723.476149 525.821336
-215.071068 1724.284271 527.639610
-215.273098 1725.092393 529.457885
-215.475129 1725.900515 531.276159
-215.677159 1726.708637 533.094434
-216.000000 1728.000000 536.000000
-216.422944 1728.845889 537.762268
-216.845889 1729.691778 539.524537
-217.268833 1730.537667 541.286805
-217.691778 1731.383555 543.049074
-218.114722 1732.229444 544.811342
-218.537667 1733.075333 546.573611
-218.960611 1733.921222 548.335879
-219.383555 1734.767111 550.098148
-219.806500 1735.613000 551.860416
-220.229444 1736.458889 553.622684
-220.652389 1737.304777 555.384953
-221.075333 1738.150666 557.147221
-221.498278 1738.996555 558.909490
-221.921222 1739.842444 560.671758
-222.344166 1740.688333 562.434027
-222.767111 1741.534222 564.196295
-223.190055 1742.380110 565.958564
-223.613000 1743.225999 567.720832
-224.035944 1744.071888 569.483100
-224.458889 1744.917777 571.245369
-224.881833 1745.763666 573.007637
-225.304777 1746.609555 574.769906
-225.727722 1747.455444 576.532174
-226.150666 1748.301332 578.294443
-226.573611 1749.147221 580.056711
-226.996555 1749.993110 581.818979
-227.419500 1750.838999 583.581248
-227.842444 1751.684888 585.343516
-228.265388 1752.530777 587.105785
-228.688333 1753.376666 588.868053
-229.111277 1754.222554 590.630322
-229.534222 1755.068443 592.392590
-229.957166 1755.914332 594.154859
-230.380110 1756.760221 595.917127
-230.803055 1757.606110 597.679395
-231.225999 1758.451999 599.441664
-231.648944 1759.297888 601.203932
-232.071888 1760.143776 602.966201
-232.494833 1760.989665 604.728469
-232.917777 1761.835554 606.490738
-233.340721 1762.681443 608.253006
-233.763666 1763.527332 610.015275
-234.186610 1764.373221 611.777543
-234.609555 1765.219109 613.539811
-235.032499 1766.064998 615.302080
-235.455444 1766.910887 617.064348
-235.878388 1767.756776 618.826617
-236.301332 1768.602665 620.588885
-236.724277 1769.448554 622.351154
-237.147221 1770.294443 624.113422
-237.570166 1771.140331 625.875691
-237.993110 1771.986220 627.637959
-238.416055 1772.832109 629.400227
-238.838999 1773.677998 631.162496
-239.261943 1774.523887 632.924764
-240.000000 1776.000000 636.000000
-240.806517 1776.000000 634.169828
-241.613033 1776.000000 632.339655
-242.419550 1776.000000 630.509483
-243.226067 1776.000000 628.679311
-244.032583 1776.000000 626.849138
-244.839100 1776.000000 625.018966
-245.645616 1776.000000 623.188793
-246.452133 1776.000000 621.358621
-247.258650 1776.000000 619.528449
-248.065166 1776.000000 617.698276
-248.871683 1776.000000 615.868104
-249.678200 1776.000000 614.037932
-250.484716 1776.000000 612.207759
-251.291233 1776.000000 610.377587
-252.097750 1776.000000 608.547414
-252.904266 1776.000000 606.717242
-253.710783 1776.000000 604.887070
-254.517299 1776.000000 603.056897
-255.323816 1776.000000 601.226725
-256.130333 1776.000000 599.396553
-256.936849 1776.000000 597.566380
-257.743366 1776.000000 595.736208
-258.549883 1776.000000 593.906035
-259.356399 1776.000000 592.075863
-260.162916 1776.000000 590.245691
-260.969433 1776.000000 588.415518
-261.775949 1776.000000 586.585346
-262.582466 1776.000000 584.755174
-263.388983 1776.000000 582.925001
-264.195499 1776.000000 581.094829
-265.002016 1776.000000 579.264656
-265.808532 1776.000000 577.434484
-266.615049 1776.000000 575.604312
-267.421566 1776.000000 573.774139
-268.228082 1776.000000 571.943967
-269.034599 1776.000000 570.113795
-269.841116 1776.000000 568.283622
-270.647632 1776.000000 566.453450
-271.454149 1776.000000 564.623277
-272.260666 1776.000000 562.793105
-273.067182 1776.000000 560.962933
-273.873699 1776.000000 559.132760
-274.680215 1776.000000 557.302588
-275.486732 1776.000000 555.472416
-276.293249 1776.000000 553.642243
-277.099765 1776.000000 551.812071
-277.906282 1776.000000 549.981899
-278.712799 1776.000000 548.151726
-279.519315 1776.000000 546.321554
-280.325832 1776.000000 544.491381
-281.132349 1776.000000 542.661209
-281.938865 1776.000000 540.831037
-282.745382 1776.000000 539.000864
-283.551898 1776.000000 537.170692
-284.358415 1776.000000 535.340520
-285.164932 1776.000000 533.510347
-285.971448 1776.000000 531.680175
-286.777965 1776.000000 529.850002
-287.584482 1776.000000 528.019830
-288.390998 1776.000000 526.189658
-289.197515 1776.000000 524.359485
-290.004032 1776.000000 522.529313
-290.810548 1776.000000 520.699141
-291.617065 1776.000000 518.868968
-292.423582 1776.000000 517.038796
-293.230098 1776.000000 515.208623
-294.036615 1776.000000 513.378451
-294.843131 1776.000000 511.548279
-295.649648 1776.000000 509.718106
-296.456165 1776.000000 507.887934
-297.262681 1776.000000 506.057762
-298.069198 1776.000000 504.227589
-298.875715 1776.000000 502.397417
-299.682231 1776.000000 500.567244
-300.488748 1776.000000 498.737072
-301.295265 1776.000000 496.906900
-302.101781 1776.000000 495.076727
-302.908298 1776.000000 493.246555
-303.714814 1776.000000 491.416383
-304.521331 1776.000000 489.586210
-305.327848 1776.000000 487.756038
-306.134364 1776.000000 485.925865
-306.940881 1776.000000 484.095693
-307.747398 1776.000000 482.265521
-308.553914 1776.000000 480.435348
-309.360431 1776.000000 478.605176
-310.166948 1776.000000 476.775004
-310.973464 1776.000000 474.944831
-311.779981 1776.000000 473.114659
-312.586497 1776.000000 471.284487
-313.393014 1776.000000 469.454314
-314.199531 1776.000000 467.624142
-315.006047 1776.000000 465.793969
-315.812564 1776.000000 463.963797
-316.619081 1776.000000 462.133625
-317.425597 1776.000000 460.303452
-318.232114 1776.000000 458.473280
-319.038631 1776.000000 456.643108
-319.845147 1776.000000 454.812935
-320.651664 1776.000000 452.982763
-321.458180 1776.000000 451.152590
-322.264697 1776.000000 449.322418
-323.071214 1776.000000 447.492246
-323.877730 1776.000000 445.662073
-324.684247 1776.000000 443.831901
-325.490764 1776.000000 442.001729
-326.297280 1776.000000 440.171556
-327.103797 1776.000000 438.341384
-327.910314 1776.000000 436.511211
-328.716830 1776.000000 434.681039
-329.523347 1776.000000 432.850867
-330.329864 1776.000000 431.020694
-331.136380 1776.000000 429.190522
-331.942897 1776.000000 427.360350
-332.749413 1776.000000 425.530177
-333.555930 1776.000000 423.700005
-334.362447 1776.000000 421.869832
-335.168963 1776.000000 420.039660
-335.975480 1776.000000 418.209488
-336.781997 1776.000000 416.379315
-337.588513 1776.000000 414.549143
-338.395030 1776.000000 412.718971
-339.201547 1776.000000 410.888798
-340.008063 1776.000000 409.058626
-340.814580 1776.000000 407.228453
-341.621096 1776.000000 405.398281
-342.427613 1776.000000 403.568109
-343.234130 1776.000000 401.737936
-344.040646 1776.000000 399.907764
-344.847163 1776.000000 398.077592
-345.653680 1776.000000 396.247419
-346.460196 1776.000000 394.417247
-347.266713 1776.000000 392.587075
-348.073230 1776.000000 390.756902
-348.879746 1776.000000 388.926730
-349.686263 1776.000000 387.096557
-350.492779 1776.000000 385.266385
-351.299296 1776.000000 383.436213
-352.105813 1776.000000 381.606040
-352.912329 1776.000000 379.775868
-353.718846 1776.000000 377.945696
-354.525363 1776.000000 376.115523
-355.331879 1776.000000 374.285351
-356.138396 1776.000000 372.455178
-356.944913 1776.000000 370.625006
-357.751429 1776.000000 368.794834
-358.557946 1776.000000 366.964661
-359.364463 1776.000000 365.134489
-360.170979 1776.000000 363.304317
-360.977496 1776.000000 361.474144
-361.784012 1776.000000 359.643972
-362.590529 1776.000000 357.813799
-363.397046 1776.000000 355.983627
-364.203562 1776.000000 354.153455
-365.010079 1776.000000 352.323282
-365.816596 1776.000000 350.493110
-366.623112 1776.000000 348.662938
-367.429629 1776.000000 346.832765
-368.236146 1776.000000 345.002593
-369.042662 1776.000000 343.172420
-369.849179 1776.000000 341.342248
-370.655695 1776.000000 339.512076
-371.462212 1776.000000 337.681903
-372.268729 1776.000000 335.851731
-373.075245 1776.000000 334.021559
-373.881762 1776.000000 332.191386
-374.688279 1776.000000 330.361214
-375.494795 1776.000000 328.531041
-376.301312 1776.000000 326.700869
-377.107829 1776.000000 324.870697
-377.914345 1776.000000 323.040524
-378.720862 1776.000000 321.210352
-379.527378 1776.000000 319.380180
-380.333895 1776.000000 317.550007
-381.140412 1776.000000 315.719835
-381.946928 1776.000000 313.889663
-382.753445 1776.000000 312.059490
-383.559962 1776.000000 310.229318
-384.366478 1776.000000 308.399145
-385.172995 1776.000000 306.568973
-385.979512 1776.000000 304.738801
-386.786028 1776.000000 302.908628
-387.592545 1776.000000 301.078456
-388.399061 1776.000000 299.248284
-389.205578 1776.000000 297.418111
-390.012095 1776.000000 295.587939
-390.818611 1776.000000 293.757766
-391.625128 1776.000000 291.927594
-392.431645 1776.000000 290.097422
-393.238161 1776.000000 288.267249
-394.044678 1776.000000 286.437077
-394.851195 1776.000000 284.606905
-395.657711 1776.000000 282.776732
-396.464228 1776.000000 280.946560
-397.270745 1776.000000 279.116387
-398.077261 1776.000000 277.286215
-398.883778 1776.000000 275.456043
-399.690294 1776.000000 273.625870
-400.496811 1776.000000 271.795698
-401.303328 1776.000000 269.965526
-402.109844 1776.000000 268.135353
-402.916361 1776.000000 266.305181
-403.722878 1776.000000 264.475008
-404.529394 1776.000000 262.644836
-405.335911 1776.000000 260.814664
-406.142428 1776.000000 258.984491
-406.948944 1776.000000 257.154319
-407.755461 1776.000000 255.324147
-408.561977 1776.000000 253.493974
-409.368494 1776.000000 251.663802
-410.175011 1776.000000 249.833629
-410.981527 1776.000000 248.003457
-411.788044 1776.000000 246.173285
-412.594561 1776.000000 244.343112
-413.401077 1776.000000 242.512940
-414.207594 1776.000000 240.682768
-415.014111 1776.000000 238.852595
-415.820627 1776.000000 237.022423
-416.627144 1776.000000 235.192251
-417.433660 1776.000000 233.362078
-418.240177 1776.000000 231.531906
-419.046694 1776.000000 229.701733
-419.853210 1776.000000 227.871561
-420.659727 1776.000000 226.041389
-421.466244 1776.000000 224.211216
-422.272760 1776.000000 222.381044
-423.079277 1776.000000 220.550872
-423.885794 1776.000000 218.720699
-424.692310 1776.000000 216.890527
-425.498827 1776.000000 215.060354
-426.305344 1776.000000 213.230182
-427.111860 1776.000000 211.400010
-427.918377 1776.000000 209.569837
-428.724893 1776.000000 207.739665
-429.531410 1776.000000 205.909493
-430.337927 1776.000000 204.079320
-431.144443 1776.000000 202.249148
-431.950960 1776.000000 200.418975
-432.757477 1776.000000 198.588803
-433.563993 1776.000000 196.758631
-434.370510 1776.000000 194.928458
-435.177027 1776.000000 193.098286
-435.983543 1776.000000 191.268114
-436.790060 1776.000000 189.437941
-437.596576 1776.000000 187.607769
-438.403093 1776.000000 185.777596
-439.209610 1776.000000 183.947424
-440.016126 1776.000000 182.117252
-440.822643 1776.000000 180.287079
-441.629160 1776.000000 178.456907
-442.435676 1776.000000 176.626735
-443.242193 1776.000000 174.796562
-444.048710 1776.000000 172.966390
-444.855226 1776.000000 171.136217
-445.661743 1776.000000 169.306045
-446.468259 1776.000000 167.475873
-448.000000 1776.000000 164.000000
-448.124757 1774.003895 164.000000
-448.249513 1772.007790 164.000000
-448.374270 1770.011685 164.000000
-448.499026 1768.015579 164.000000
-448.623783 1766.019474 164.000000
-448.748539 1764.023369 164.000000
-448.873296 1762.027264 164.000000
-448.998053 1760.031159 164.000000
-449.122809 1758.035054 164.000000
-449.247566 1756.038948 164.000000
-449.372322 1754.042843 164.000000
-449.497079 1752.046738 164.000000
-449.621835 1750.050633 164.000000
-449.746592 1748.054528 164.000000
-449.871349 1746.058423 164.000000
-449.996105 1744.062317 164.000000
-450.120862 1742.066212 164.000000
-450.245618 1740.070107 164.000000
-450.370375 1738.074002 164.000000
-450.495131 1736.077897 164.000000
-450.619888 1734.081792 164.000000
-450.744645 1732.085687 164.000000
-450.869401 1730.089581 164.000000
-450.994158 1728.093476 164.000000
-451.118914 1726.097371 164.000000
-451.243671 1724.101266 164.000000
-451.368427 1722.105161 164.000000
-451.493184 1720.109056 164.000000
-451.617941 1718.112950 164.000000
-451.742697 1716.116845 164.000000
-451.867454 1714.120740 164.000000
-451.992210 1712.124635 164.000000
-452.116967 1710.128530 164.000000
-452.241723 1708.132425 164.000000
-452.366480 1706.136320 164.000000
-452.491237 1704.140214 164.000000
-452.615993 1702.144109 164.000000
-452.740750 1700.148004 164.000000
-452.865506 1698.151899 164.000000
-452.990263 1696.155794 164.000000
-453.115019 1694.159689 164.000000
-453.239776 1692.163583 164.000000
-453.364533 1690.167478 164.000000
-453.489289 1688.171373 164.000000
-453.614046 1686.175268 164.000000
-453.738802 1684.179163 164.000000
-453.863559 1682.183058 164.000000
-453.988315 1680.186952 164.000000
-454.113072 1678.190847 164.000000
-454.237829 1676.194742 164.000000
-454.362585 1674.198637 164.000000
-454.487342 1672.202532 164.000000
-454.612098 1670.206427 164.000000
-454.736855 1668.210322 164.000000
-454.861611 1666.214216 164.000000
-454.986368 1664.218111 164.000000
-455.111125 1662.222006 164.000000
-455.235881 1660.225901 164.000000
-455.360638 1658.229796 164.000000
-455.485394 1656.233691 164.000000
-455.610151 1654.237585 164.000000
-455.734907 1652.241480 164.000000
-455.859664 1650.245375 164.000000
-456.000000 1648.000000 164.000000
-455.695058 1646.475291 165.257885
-455.390117 1644.950583 166.515769
-455.085175 1643.425874 167.773654
-454.780233 1641.901165 169.031539
-454.475291 1640.376456 170.289423
-454.170350 1638.851748 171.547308
-453.865408 1637.327039 172.805193
-453.560466 1635.802330 174.063077
-453.255524 1634.277622 175.320962
-452.950583 1632.752913 176.578847
-452.645641 1631.228204 177.836732
-452.340699 1629.703495 179.094616
-452.035757 1628.178787 180.352501
-451.730816 1626.654078 181.610386
-451.425874 1625.129369 182.868270
-451.120932 1623.604661 184.126155
-450.815990 1622.079952 185.384040
-450.511049 1620.555243 186.641924
-450.206107 1619.030535 187.899809
-449.901165 1617.505826 189.157694
-449.596223 1615.981117 190.415578
-449.291282 1614.456408 191.673463
-448.986340 1612.931700 192.931348
-448.681398 1611.406991 194.189232
-448.376456 1609.882282 195.447117
-448.071515 1608.357574 196.705002
-447.766573 1606.832865 197.962887
-447.461631 1605.308156 199.220771
-447.156689 1603.783447 200.478656
-446.851748 1602.258739 201.736541
-446.546806 1600.734030 202.994425
-446.241864 1599.209321 204.252310
-445.936923 1597.684613 205.510195
-445.631981 1596.159904 206.768079
-445.327039 1594.635195 208.025964
-445.022097 1593.110486 209.283849
-444.717156 1591.585778 210.541733
-444.412214 1590.061069 211.799618
-444.107272 1588.536360 213.057503
-443.802330 1587.011652 214.315387
-443.497389 1585.486943 215.573272
-443.192447 1583.962234 216.831157
-442.887505 1582.437525 218.089041
-442.582563 1580.912817 219.346926
-442.277622 1579.388108 220.604811
-441.972680 1577.863399 221.862696
-441.667738 1576.338691 223.120580
-441.362796 1574.813982 224.378465
-441.057855 1573.289273 225.636350
-440.752913 1571.764564 226.894234
-440.447971 1570.239856 228.152119
-440.143029 1568.715147 229.410004
-439.838088 1567.190438 230.667888
-439.533146 1565.665730 231.925773
-439.228204 1564.141021 233.183658
-438.923262 1562.616312 234.441542
-438.618321 1561.091604 235.699427
-438.313379 1559.566895 236.957312
-438.008437 1558.042186 238.215196
-437.703495 1556.517477 239.473081
-437.398554 1554.992769 240.730966
-437.093612 1553.468060 241.988851
-436.788670 1551.943351 243.246735
-436.483729 1550.418643 244.504620
-436.178787 1548.893934 245.762505
-435.873845 1547.369225 247.020389
-435.568903 1545.844516 248.278274
-435.263962 1544.319808 249.536159
-434.959020 1542.795099 250.794043
-434.654078 1541.270390 252.051928
-434.349136 1539.745682 253.309813
-434.044195 1538.220973 254.567697
-433.739253 1536.696264 255.825582
-433.434311 1535.171555 257.083467
-433.129369 1533.646847 258.341351
-432.824428 1532.122138 259.599236
-432.519486 1530.597429 260.857121
-432.214544 1529.072721 262.115006
-431.909602 1527.548012 263.372890
-431.604661 1526.023303 264.630775
-431.299719 1524.498594 265.888660
-430.994777 1522.973886 267.146544
-430.689835 1521.449177 268.404429
-430.384894 1519.924468 269.662314
-430.079952 1518.399760 270.920198
-429.775010 1516.875051 272.178083
-429.470068 1515.350342 273.435968
-429.165127 1513.825634 274.693852
-428.860185 1512.300925 275.951737
-428.555243 1510.776216 277.209622
-428.250301 1509.251507 278.467506
-427.945360 1507.726799 279.725391
-427.640418 1506.202090 280.983276
-427.335476 1504.677381 282.241160
-427.030535 1503.152673 283.499045
-426.725593 1501.627964 284.756930
-426.420651 1500.103255 286.014815
-426.115709 1498.578546 287.272699
-425.810768 1497.053838 288.530584
-425.505826 1495.529129 289.788469
-425.200884 1494.004420 291.046353
-424.895942 1492.479712 292.304238
-424.591001 1490.955003 293.562123
-424.000000 1488.000000 296.000000
-423.277871 1486.339104 296.848501
-422.555743 1484.678208 297.697003
-421.833614 1483.017312 298.545504
-421.111485 1481.356416 299.394005
-420.389356 1479.695520 300.242506
-419.667228 1478.034624 301.091008
-418.945099 1476.373728 301.939509
-418.222970 1474.712831 302.788010
-417.500841 1473.051935 303.636511
-416.778713 1471.391039 304.485013
-416.056584 1469.730143 305.333514
-415.334455 1468.069247 306.182015
-414.612327 1466.408351 307.030516
-413.890198 1464.747455 307.879018
-413.168069 1463.086559 308.727519
-412.445940 1461.425663 309.576020
-411.723812 1459.764767 310.424521
-411.001683 1458.103871 311.273023
-410.279554 1456.442975 312.121524
-409.557426 1454.782079 312.970025
-408.835297 1453.121183 313.818526
-408.113168 1451.460287 314.667028
-407.391039 1449.799391 315.515529
-406.668911 1448.138494 316.364030
-405.946782 1446.477598 317.212531
-405.224653 1444.816702 318.061033
-404.502524 1443.155806 318.909534
-403.780396 1441.494910 319.758035
-403.058267 1439.834014 320.606536
-402.336138 1438.173118 321.455038
-401.614010 1436.512222 322.303539
-400.891881 1434.851326 323.152040
-400.169752 1433.190430 324.000541
-399.447623 1431.529534 324.849043
-398.725495 1429.868638 325.697544
-398.003366 1428.207742 326.546045
-397.281237 1426.546846 327.394546
-396.559109 1424.885950 328.243048
-395.836980 1423.225054 329.091549
-395.114851 1421.564157 329.940050
-394.392722 1419.903261 330.788551
-393.670594 1418.242365 331.637053
-392.948465 1416.581469 332.485554
-392.226336 1414.920573 333.334055
-391.504207 1413.259677 334.182556
-390.782079 1411.598781 335.031058
-390.059950 1409.937885 335.879559
-389.337821 1408.276989 336.728060
-388.615693 1406.616093 337.576561
-387.893564 1404.955197 338.425063
-387.171435 1403.294301 339.273564
-386.449306 1401.633405 340.122065
-385.727178 1399.972509 340.970566
-385.005049 1398.311613 341.819068
-384.282920 1396.650716 342.667569
-383.560791 1394.989820 343.516070
-382.838663 1393.328924 344.364571
-382.116534 1391.668028 345.213073
-381.394405 1390.007132 346.061574
-380.672277 1388.346236 346.910075
-379.950148 1386.685340 347.758576
-379.228019 1385.024444 348.607078
-378.505890 1383.363548 349.455579
-377.783762 1381.702652 350.304080
-377.061633 1380.041756 351.152581
-376.339504 1378.380860 352.001083
-375.617376 1376.719964 352.849584
-374.895247 1375.059068 353.698085
-374.173118 1373.398172 354.546586
-373.450989 1371.737276 355.395088
-372.728861 1370.076379 356.243589
-372.006732 1368.415483 357.092090
-371.284603 1366.754587 357.940591
-370.562474 1365.093691 358.789093
-369.840346 1363.432795 359.637594
-369.118217 1361.771899 360.486095
-368.396088 1360.111003 361.334596
-367.673960 1358.450107 362.183098
-366.951831 1356.789211 363.031599
-366.229702 1355.128315 363.880100
-365.507573 1353.467419 364.728601
-364.785445 1351.806523 365.577103
-364.063316 1350.145627 366.425604
-363.341187 1348.484731 367.274105
-362.619059 1346.823835 368.122606
-361.896930 1345.162938 368.971108
-361.174801 1343.502042 369.819609
-360.452672 1341.841146 370.668110
-359.730544 1340.180250 371.516611
-359.008415 1338.519354 372.365113
-358.286286 1336.858458 373.213614
-357.564157 1335.197562 374.062115
-356.842029 1333.536666 374.910616
-356.119900 1331.875770 375.759118
-355.397771 1330.214874 376.607619
-354.675643 1328.553978 377.456120
-353.953514 1326.893082 378.304621
-353.231385 1325.232186 379.153123
-352.509256 1323.571290 380.001624
-351.787128 1321.910394 380.850125
-351.064999 1320.249498 381.698626
-350.342870 1318.588601 382.547128
-349.620741 1316.927705 383.395629
-348.898613 1315.266809 384.244130
-348.176484 1313.605913 385.092631
-347.454355 1311.945017 385.941133
-346.732227 1310.284121 386.789634
-346.010098 1308.623225 387.638135
-345.287969 1306.962329 388.486636
-344.565840 1305.301433 389.335138
-343.843712 1303.640537 390.183639
-343.121583 1301.979641 391.032140
-342.399454 1300.318745 391.880641
-341.677326 1298.657849 392.729143
-340.955197 1296.996953 393.577644
-340.233068 1295.336057 394.426145
-339.510939 1293.675161 395.274646
-338.788811 1292.014264 396.123148
-338.066682 1290.353368 396.971649
-337.344553 1288.692472 397.820150
-336.622424 1287.031576 398.668651
-335.900296 1285.370680 399.517153
-335.178167 1283.709784 400.365654
-334.456038 1282.048888 401.214155
-333.733910 1280.387992 402.062656
-333.011781 1278.727096 402.911158
-332.289652 1277.066200 403.759659
-331.567523 1275.405304 404.608160
-330.845395 1273.744408 405.456661
-330.123266 1272.083512 406.305163
-329.401137 1270.422616 407.153664
-328.679009 1268.761720 408.002165
-327.956880 1267.100823 408.850666
-327.234751 1265.439927 409.699168
-326.512622 1263.779031 410.547669
-325.790494 1262.118135 411.396170
-325.068365 1260.457239 412.244671
-324.346236 1258.796343 413.093173
-323.624107 1257.135447 413.941674
-322.901979 1255.474551 414.790175
-322.179850 1253.813655 415.638676
-321.457721 1252.152759 416.487178
-320.735593 1250.491863 417.335679
-320.013464 1248.830967 418.184180
-319.291335 1247.170071 419.032681
-318.569206 1245.509175 419.881183
-317.847078 1243.848279 420.729684
-317.124949 1242.187383 421.578185
-316.402820 1240.526486 422.426686
-315.680691 1238.865590 423.275188
-314.958563 1237.204694 424.123689
-314.236434 1235.543798 424.972190
-313.514305 1233.882902 425.820691
-312.792177 1232.222006 426.669193
-312.070048 1230.561110 427.517694
-311.347919 1228.900214 428.366195
-310.625790 1227.239318 429.214696
-309.903662 1225.578422 430.063198
-309.181533 1223.917526 430.911699
-308.459404 1222.256630 431.760200
-307.737276 1220.595734 432.608701
-307.015147 1218.934838 433.457203
-306.293018 1217.273942 434.305704
-305.570889 1215.613046 435.154205
-304.848761 1213.952149 436.002706
-304.126632 1212.291253 436.851208
-303.404503 1210.630357 437.699709
-302.682374 1208.969461 438.548210
-301.960246 1207.308565 439.396711
-301.238117 1205.647669 440.245213
-300.515988 1203.986773 441.093714
-299.793860 1202.325877 441.942215
-299.071731 1200.664981 442.790716
-298.349602 1199.004085 443.639218
-297.627473 1197.343189 444.487719
-296.905345 1195.682293 445.336220
-296.183216 1194.021397 446.184721
-295.461087 1192.360501 447.033223
-294.738958 1190.699605 447.881724
-294.016830 1189.038708 448.730225
-293.294701 1187.377812 449.578726
-292.572572 1185.716916 450.427228
-291.850444 1184.056020 451.275729
-291.128315 1182.395124 452.124230
-290.406186 1180.734228 452.972731
-289.684057 1179.073332 453.821233
-288.961929 1177.412436 454.669734
-288.239800 1175.751540 455.518235
-287.517671 1174.090644 456.366736
-286.795543 1172.429748 457.215238
-286.073414 1170.768852 458.063739
-285.351285 1169.107956 458.912240
-284.629156 1167.447060 459.760741
-283.907028 1165.786164 460.609243
-283.184899 1164.125268 461.457744
-282.462770 1162.464371 462.306245
-281.740641 1160.803475 463.154746
-281.018513 1159.142579 464.003248
-280.296384 1157.481683 464.851749
-279.574255 1155.820787 465.700250
-278.852127 1154.159891 466.548751
-278.129998 1152.498995 467.397253
-277.407869 1150.838099 468.245754
-276.685740 1149.177203 469.094255
-275.963612 1147.516307 469.942756
-275.241483 1145.855411 470.791258
-274.519354 1144.194515 471.639759
-273.797226 1142.533619 472.488260
-273.075097 1140.872723 473.336761
-272.352968 1139.211827 474.185263
-271.630839 1137.550930 475.033764
-270.908711 1135.890034 475.882265
-270.186582 1134.229138 476.730766
-269.464453 1132.568242 477.579268
-268.742324 1130.907346 478.427769
-268.020196 1129.246450 479.276270
-267.298067 1127.585554 480.124771
-266.575938 1125.924658 480.973273
-265.853810 1124.263762 481.821774
-265.131681 1122.602866 482.670275
-264.000000 1120.000000 484.000000
-264.031923 1119.425377 482.084591
-264.063847 1118.850755 480.169183
-264.095770 1118.276132 478.253774
-264.127694 1117.701510 476.338366
-264.159617 1117.126887 474.422957
-264.191541 1116.552265 472.507549
-264.223464 1115.977642 470.592140
-264.255388 1115.403020 468.676732
-264.287311 1114.828397 466.761323
-264.319235 1114.253774 464.845915
-264.351158 1113.679152 462.930506
-264.383082 1113.104529 461.015098
-264.415005 1112.529907 459.099689
-264.446929 1111.955284 457.184281
-264.478852 1111.380662 455.268872
-264.510776 1110.806039 453.353464
-264.542699 1110.231417 451.438055
-264.574623 1109.656794 449.522647
-264.606546 1109.082171 447.607238
-264.638470 1108.507549 445.691830
-264.670393 1107.932926 443.776421
-264.702316 1107.358304 441.861013
-264.734240 1106.783681 439.945604
-264.766163 1106.209059 438.030195
-264.798087 1105.634436 436.114787
-264.830010 1105.059814 434.199378
-264.861934 1104.485191 432.283970
-264.893857 1103.910568 430.368561
-264.925781 1103.335946 428.453153
-264.957704 1102.761323 426.537744
-264.989628 1102.186701 424.622336
-265.021551 1101.612078 422.706927
-265.053475 1101.037456 420.791519
-265.085398 1100.462833 418.876110
-265.117322 1099.888211 416.960702
-265.149245 1099.313588 415.045293
-265.181169 1098.738965 413.129885
-265.213092 1098.164343 411.214476
-265.245016 1097.589720 409.299068
-265.276939 1097.015098 407.383659
-265.308862 1096.440475 405.468251
-265.340786 1095.865853 403.552842
-265.372709 1095.291230 401.637434
-265.404633 1094.716608 399.722025
-265.436556 1094.141985 397.806616
-265.468480 1093.567362 395.891208
-265.500403 1092.992740 393.975799
-265.532327 1092.418117 392.060391
-265.564250 1091.843495 390.144982
-265.596174 1091.268872 388.229574
-265.628097 1090.694250 386.314165
-265.660021 1090.119627 384.398757
-265.691944 1089.545004 382.483348
-265.723868 1088.970382 380.567940
-265.755791 1088.395759 378.652531
-265.787715 1087.821137 376.737123
-265.819638 1087.246514 374.821714
-265.851562 1086.671892 372.906306
-265.883485 1086.097269 370.990897
-265.915409 1085.522647 369.075489
-265.947332 1084.948024 367.160080
-265.979255 1084.373401 365.244672
-266.011179 1083.798779 363.329263
-266.043102 1083.224156 361.413855
-266.075026 1082.649534 359.498446
-266.106949 1082.074911 357.583038
-266.138873 1081.500289 355.667629
-266.170796 1080.925666 353.752220
-266.202720 1080.351044 351.836812
-266.234643 1079.776421 349.921403
-266.266567 1079.201798 348.005995
-266.298490 1078.627176 346.090586
-266.330414 1078.052553 344.175178
-266.362337 1077.477931 342.259769
-266.394261 1076.903308 340.344361
-266.426184 1076.328686 338.428952
-266.458108 1075.754063 336.513544
-266.490031 1075.179441 334.598135
-266.521955 1074.604818 332.682727
-266.553878 1074.030195 330.767318
-266.585802 1073.455573 328.851910
-266.617725 1072.880950 326.936501
-266.649648 1072.306328 325.021093
-266.681572 1071.731705 323.105684
-266.713495 1071.157083 321.190276
-266.745419 1070.582460 319.274867
-266.777342 1070.007838 317.359459
-266.809266 1069.433215 315.444050
-266.841189 1068.858592 313.528641
-266.873113 1068.283970 311.613233
-266.905036 1067.709347 309.697824
-266.936960 1067.134725 307.782416
-266.968883 1066.560102 305.867007
-267.000807 1065.985480 303.951599
-267.032730 1065.410857 302.036190
-267.064654 1064.836235 300.120782
-267.096577 1064.261612 298.205373
-267.128501 1063.686989 296.289965
-267.160424 1063.112367 294.374556
-267.192348 1062.537744 292.459148
-267.224271 1061.963122 290.543739
-267.256194 1061.388499 288.628331
-267.288118 1060.813877 286.712922
-267.320041 1060.239254 284.797514
-267.351965 1059.664632 282.882105
-267.383888 1059.090009 280.966697
-267.415812 1058.515386 279.051288
-267.447735 1057.940764 277.135880
-267.479659 1057.366141 275.220471
-267.511582 1056.791519 273.305063
-267.543506 1056.216896 271.389654
-267.575429 1055.642274 269.474245
-267.607353 1055.067651 267.558837
-267.639276 1054.493029 265.643428
-267.671200 1053.918406 263.728020
-267.703123 1053.343783 261.812611
-267.735047 1052.769161 259.897203
-267.766970 1052.194538 257.981794
-267.798894 1051.619916 256.066386
-267.830817 1051.045293 254.150977
-267.862741 1050.470671 252.235569
-267.894664 1049.896048 250.320160
-267.926587 1049.321426 248.404752
-267.958511 1048.746803 246.489343
-267.990434 1048.172180 244.573935
-268.022358 1047.597558 242.658526
-268.054281 1047.022935 240.743118
-268.086205 1046.448313 238.827709
-268.118128 1045.873690 236.912301
-268.150052 1045.299068 234.996892
-268.181975 1044.724445 233.081484
-268.213899 1044.149823 231.166075
-268.245822 1043.575200 229.250666
-268.277746 1043.000577 227.335258
-268.309669 1042.425955 225.419849
-268.341593 1041.851332 223.504441
-268.373516 1041.276710 221.589032
-268.405440 1040.702087 219.673624
-268.437363 1040.127465 217.758215
-268.469287 1039.552842 215.842807
-268.501210 1038.978219 213.927398
-268.533134 1038.403597 212.011990
-268.565057 1037.828974 210.096581
-268.596980 1037.254352 208.181173
-268.628904 1036.679729 206.265764
-268.660827 1036.105107 204.350356
-268.692751 1035.530484 202.434947
-268.724674 1034.955862 200.519539
-268.756598 1034.381239 198.604130
-268.788521 1033.806616 196.688722
-268.820445 1033.231994 194.773313
-268.852368 1032.657371 192.857905
-268.884292 1032.082749 190.942496
-268.916215 1031.508126 189.027088
-268.948139 1030.933504 187.111679
-268.980062 1030.358881 185.196270
-269.011986 1029.784259 183.280862
-269.043909 1029.209636 181.365453
-269.075833 1028.635013 179.450045
-269.107756 1028.060391 177.534636
-269.139680 1027.485768 175.619228
-269.171603 1026.911146 173.703819
-269.203526 1026.336523 171.788411
-269.235450 1025.761901 169.873002
-269.267373 1025.187278 167.957594
-269.299297 1024.612656 166.042185
-269.331220 1024.038033 164.126777
-269.363144 1023.463410 162.211368
-269.395067 1022.888788 160.295960
-269.426991 1022.314165 158.380551
-269.458914 1021.739543 156.465143
-269.490838 1021.164920 154.549734
-269.522761 1020.590298 152.634326
-269.554685 1020.015675 150.718917
-269.586608 1019.441053 148.803509
-269.618532 1018.866430 146.888100
-269.650455 1018.291807 144.972691
-269.682379 1017.717185 143.057283
-269.714302 1017.142562 141.141874
-269.746226 1016.567940 139.226466
-269.778149 1015.993317 137.311057
-269.810073 1015.418695 135.395649
-269.841996 1014.844072 133.480240
-269.873919 1014.269450 131.564832
-269.905843 1013.694827 129.649423
-269.937766 1013.120204 127.734015
-269.969690 1012.545582 125.818606
-270.001613 1011.970959 123.903198
-270.033537 1011.396337 121.987789
-270.065460 1010.821714 120.072381
-270.097384 1010.247092 118.156972
-270.129307 1009.672469 116.241564
-270.161231 1009.097847 114.326155
-270.193154 1008.523224 112.410747
-270.225078 1007.948601 110.495338
-270.257001 1007.373979 108.579930
-270.288925 1006.799356 106.664521
-270.320848 1006.224734 104.749113
-270.352772 1005.650111 102.833704
-270.384695 1005.075489 100.918295
-270.416619 1004.500866 99.002887
-270.448542 1003.926244 97.087478
-270.480466 1003.351621 95.172070
-270.512389 1002.776998 93.256661
-270.544312 1002.202376 91.341253
-270.576236 1001.627753 89.425844
-270.608159 1001.053131 87.510436
-270.640083 1000.478508 85.595027
-270.672006 999.903886 83.679619
-270.703930 999.329263 81.764210
-270.735853 998.754641 79.848802
-270.767777 998.180018 77.933393
-270.799700 997.605395 76.017985
-270.831624 997.030773 74.102576
-270.863547 996.456150 72.187168
-270.895471 995.881528 70.271759
-270.927394 995.306905 68.356351
-270.959318 994.732283 66.440942
-270.991241 994.157660 64.525534
-271.023165 993.583038 62.610125
-271.055088 993.008415 60.694716
-271.087012 992.433792 58.779308
-271.118935 991.859170 56.863899
-271.150858 991.284547 54.948491
-271.182782 990.709925 53.033082
-271.214705 990.135302 51.117674
-271.246629 989.560680 49.202265
-271.278552 988.986057 47.286857
-271.310476 988.411434 45.371448
-271.342399 987.836812 43.456040
-271.374323 987.262189 41.540631
-271.406246 986.687567 39.625223
-271.438170 986.112944 37.709814
-271.470093 985.538322 35.794406
-271.502017 984.963699 33.878997
-271.533940 984.389077 31.963589
-271.565864 983.814454 30.048180
-271.597787 983.239831 28.132772
-271.629711 982.665209 26.217363
-271.661634 982.090586 24.301955
-271.693558 981.515964 22.386546
-271.725481 980.941341 20.471138
-271.757405 980.366719 18.555729
-271.789328 979.792096 16.640320
-271.821251 979.217474 14.724912
-271.853175 978.642851 12.809503
-271.885098 978.068228 10.894095
-271.917022 977.493606 8.978686
-271.948945 976.918983 7.063278
-272.000000 976.000000 4.000000
-272.606407 974.094148 4.000000
-273.212815 972.188297 4.000000
-273.819222 970.282445 4.000000
-274.425629 968.376594 4.000000
-275.032037 966.470742 4.000000
-275.638444 964.564891 4.000000
-276.244851 962.659039 4.000000
-276.851259 960.753188 4.000000
-277.457666 958.847336 4.000000
-278.064073 956.941484 4.000000
-278.670480 955.035633 4.000000
-279.276888 953.129781 4.000000
-279.883295 951.223930 4.000000
-280.489702 949.318078 4.000000
-281.096110 947.412227 4.000000
-281.702517 945.506375 4.000000
-282.308924 943.600523 4.000000
-282.915332 941.694672 4.000000
-283.521739 939.788820 4.000000
-284.128146 937.882969 4.000000
-284.734554 935.977117 4.000000
-285.340961 934.071266 4.000000
-285.947368 932.165414 4.000000
-286.553776 930.259563 4.000000
-287.160183 928.353711 4.000000
-287.766590 926.447859 4.000000
-288.372997 924.542008 4.000000
-288.979405 922.636156 4.000000
-289.585812 920.730305 4.000000
-290.192219 918.824453 4.000000
-290.798627 916.918602 4.000000
-291.405034 915.012750 4.000000
-292.011441 913.106899 4.000000
-292.617849 911.201047 4.000000
-293.224256 909.295195 4.000000
-293.830663 907.389344 4.000000
-294.437071 905.483492 4.000000
-295.043478 903.577641 4.000000
-295.649885 901.671789 4.000000
-296.256293 899.765938 4.000000
-296.862700 897.860086 4.000000
-297.469107 895.954234 4.000000
-298.075515 894.048383 4.000000
-298.681922 892.142531 4.000000
-299.288329 890.236680 4.000000
-299.894736 888.330828 4.000000
-300.501144 886.424977 4.000000
-301.107551 884.519125 4.000000
-301.713958 882.613274 4.000000
-302.320366 880.707422 4.000000
-302.926773 878.801570 4.000000
-303.533180 876.895719 4.000000
-304.139588 874.989867 4.000000
-304.745995 873.084016 4.000000
-305.352402 871.178164 4.000000
-305.958810 869.272313 4.000000
-306.565217 867.366461 4.000000
-307.171624 865.460610 4.000000
-307.778032 863.554758 4.000000
-308.384439 861.648906 4.000000
-308.990846 859.743055 4.000000
-309.597254 857.837203 4.000000
-310.203661 855.931352 4.000000
-310.810068 854.025500 4.000000
-311.416475 852.119649 4.000000
-312.022883 850.213797 4.000000
-312.629290 848.307945 4.000000
-313.235697 846.402094 4.000000
-313.842105 844.496242 4.000000
-314.448512 842.590391 4.000000
-315.054919 840.684539 4.000000
-315.661327 838.778688 4.000000
-316.267734 836.872836 4.000000
-316.874141 834.966985 4.000000
-317.480549 833.061133 4.000000
-318.086956 831.155281 4.000000
-318.693363 829.249430 4.000000
-319.299771 827.343578 4.000000
-319.906178 825.437727 4.000000
-320.512585 823.531875 4.000000
-321.118992 821.626024 4.000000
-321.725400 819.720172 4.000000
-322.331807 817.814321 4.000000
-322.938214 815.908469 4.000000
-323.544622 814.002617 4.000000
-324.151029 812.096766 4.000000
-324.757436 810.190914 4.000000
-325.363844 808.285063 4.000000
-325.970251 806.379211 4.000000
-326.576658 804.473360 4.000000
-327.183066 802.567508 4.000000
-328.000000 800.000000 4.000000
-328.110940 798.003079 4.000000
-328.221880 796.006159 4.000000
-328.332820 794.009238 4.000000
-328.443760 792.012317 4.000000
-328.554700 790.015396 4.000000
-328.665640 788.018476 4.000000
-328.776580 786.021555 4.000000
-328.887520 784.024634 4.000000
-328.998460 782.027714 4.000000
-329.109400 780.030793 4.000000
-329.220340 778.033872 4.000000
-329.331280 776.036952 4.000000
-329.442221 774.040031 4.000000
-329.553161 772.043110 4.000000
-329.664101 770.046189 4.000000
-329.775041 768.049269 4.000000
-329.885981 766.052348 4.000000
-329.996921 764.055427 4.000000
-330.107861 762.058507 4.000000
-330.218801 760.061586 4.000000
-330.329741 758.064665 4.000000
-330.440681 756.067744 4.000000
-330.551621 754.070824 4.000000
-330.662561 752.073903 4.000000
-330.773501 750.076982 4.000000
-330.884441 748.080062 4.000000
-330.995381 746.083141 4.000000
-331.106321 744.086220 4.000000
-331.217261 742.089300 4.000000
-331.328201 740.092379 4.000000
-331.439141 738.095458 4.000000
-331.550081 736.098537 4.000000
-331.661021 734.101617 4.000000
-331.771961 732.104696 4.000000
-331.882901 730.107775 4.000000
-331.993841 728.110855 4.000000
-332.104781 726.113934 4.000000
-332.215721 724.117013 4.000000
-332.326662 722.120092 4.000000
-332.437602 720.123172 4.000000
-332.548542 718.126251 4.000000
-332.659482 716.129330 4.000000
-332.770422 714.132410 4.000000
-332.881362 712.135489 4.000000
-332.992302 710.138568 4.000000
-333.103242 708.141648 4.000000
-333.214182 706.144727 4.000000
-333.325122 704.147806 4.000000
-333.436062 702.150885 4.000000
-333.547002 700.153965 4.000000
-333.657942 698.157044 4.000000
-333.768882 696.160123 4.000000
-333.879822 694.163203 4.000000
-333.990762 692.166282 4.000000
-334.101702 690.169361 4.000000
-334.212642 688.172440 4.000000
-334.323582 686.175520 4.000000
-334.434522 684.178599 4.000000
-334.545462 682.181678 4.000000
-334.656402 680.184758 4.000000
-334.767342 678.187837 4.000000
-334.878282 676.190916 4.000000
-334.989222 674.193995 4.000000
-335.100163 672.197075 4.000000
-335.211103 670.200154 4.000000
-335.322043 668.203233 4.000000
-335.432983 666.206313 4.000000
-335.543923 664.209392 4.000000
-335.654863 662.212471 4.000000
-335.765803 660.215551 4.000000
-335.876743 658.218630 4.000000
-336.000000 656.000000 4.000000
-336.000000 654.000000 4.000000
-336.000000 652.000000 4.000000
-336.000000 650.000000 4.000000
-336.000000 648.000000 4.000000
-336.000000 646.000000 4.000000
-336.000000 644.000000 4.000000
-336.000000 642.000000 4.000000
-336.000000 640.000000 4.000000
-336.000000 638.000000 4.000000
-336.000000 636.000000 4.000000
-336.000000 634.000000 4.000000
-336.000000 632.000000 4.000000
-336.000000 630.000000 4.000000
-336.000000 628.000000 4.000000
-336.000000 626.000000 4.000000
-336.000000 624.000000 4.000000
-336.000000 622.000000 4.000000
-336.000000 620.000000 4.000000
-336.000000 618.000000 4.000000
-336.000000 616.000000 4.000000
-336.000000 614.000000 4.000000
-336.000000 612.000000 4.000000
-336.000000 610.000000 4.000000
-336.000000 608.000000 4.000000
-336.000000 606.000000 4.000000
-336.000000 604.000000 4.000000
-336.000000 602.000000 4.000000
-336.000000 600.000000 4.000000
-336.000000 598.000000 4.000000
-336.000000 596.000000 4.000000
-336.000000 594.000000 4.000000
-336.000000 592.000000 4.000000
-336.000000 590.000000 4.000000
-336.000000 588.000000 4.000000
-336.000000 586.000000 4.000000
-336.000000 584.000000 4.000000
-336.000000 582.000000 4.000000
-336.000000 580.000000 4.000000
-336.000000 578.000000 4.000000
-336.000000 576.000000 4.000000
-336.000000 574.000000 4.000000
-336.000000 572.000000 4.000000
-336.000000 570.000000 4.000000
-336.000000 568.000000 4.000000
-336.000000 566.000000 4.000000
-336.000000 564.000000 4.000000
-336.000000 562.000000 4.000000
-336.000000 560.000000 4.000000
-336.000000 558.000000 4.000000
-336.000000 556.000000 4.000000
-336.000000 554.000000 4.000000
-336.000000 552.000000 4.000000
-336.000000 550.000000 4.000000
-336.000000 548.000000 4.000000
-336.000000 546.000000 4.000000
-336.000000 544.000000 4.000000
-336.000000 542.000000 4.000000
-336.000000 540.000000 4.000000
-336.000000 538.000000 4.000000
-336.000000 536.000000 4.000000
-336.000000 534.000000 4.000000
-336.000000 532.000000 4.000000
-336.000000 530.000000 4.000000
-336.000000 528.000000 4.000000
-336.000000 526.000000 4.000000
-336.000000 524.000000 4.000000
-336.000000 522.000000 4.000000
-336.000000 520.000000 4.000000
-336.000000 518.000000 4.000000
-336.000000 516.000000 4.000000
-336.000000 514.000000 4.000000
-336.000000 512.000000 4.000000
-336.000000 510.000000 4.000000
-336.000000 508.000000 4.000000
-336.000000 506.000000 4.000000
-336.000000 504.000000 4.000000
-336.000000 502.000000 4.000000
-336.000000 500.000000 4.000000
-336.000000 498.000000 4.000000
-336.000000 496.000000 4.000000
-336.000000 494.000000 4.000000
-336.000000 492.000000 4.000000
-336.000000 490.000000 4.000000
-336.000000 488.000000 4.000000
-336.000000 486.000000 4.000000
-336.000000 484.000000 4.000000
-336.000000 480.000000 4.000000
-336.068103 478.002320 4.068103
-336.136205 476.004641 4.136205
-336.204308 474.006961 4.204308
-336.272411 472.009281 4.272411
-336.340514 470.011602 4.340514
-336.408616 468.013922 4.408616
-336.476719 466.016242 4.476719
-336.544822 464.018563 4.544822
-336.612924 462.020883 4.612924
-336.681027 460.023203 4.681027
-336.749130 458.025524 4.749130
-336.817233 456.027844 4.817233
-336.885335 454.030164 4.885335
-336.953438 452.032485 4.953438
-337.021541 450.034805 5.021541
-337.089643 448.037125 5.089643
-337.157746 446.039446 5.157746
-337.225849 444.041766 5.225849
-337.293952 442.044086 5.293952
-337.362054 440.046407 5.362054
-337.430157 438.048727 5.430157
-337.498260 436.051047 5.498260
-337.566362 434.053368 5.566362
-337.634465 432.055688 5.634465
-337.702568 430.058008 5.702568
-337.770671 428.060329 5.770671
-337.838773 426.062649 5.838773
-337.906876 424.064969 5.906876
-337.974979 422.067290 5.974979
-338.043081 420.069610 6.043081
-338.111184 418.071930 6.111184
-338.179287 416.074251 6.179287
-338.247390 414.076571 6.247390
-338.315492 412.078891 6.315492
-338.383595 410.081212 6.383595
-338.451698 408.083532 6.451698
-338.519800 406.085852 6.519800
-338.587903 404.088173 6.587903
-338.656006 402.090493 6.656006
-338.724109 400.092813 6.724109
-338.792211 398.095134 6.792211
-338.860314 396.097454 6.860314
-338.928417 394.099774 6.928417
-338.996519 392.102095 6.996519
-339.064622 390.104415 7.064622
-339.132725 388.106735 7.132725
-339.200828 386.109056 7.200828
-339.268930 384.111376 7.268930
-339.337033 382.113696 7.337033
-339.405136 380.116017 7.405136
-339.473239 378.118337 7.473239
-339.541341 376.120657 7.541341
-339.609444 374.122978 7.609444
-339.677547 372.125298 7.677547
-339.745649 370.127618 7.745649
-339.813752 368.129939 7.813752
-339.881855 366.132259 7.881855
-339.949958 364.134579 7.949958
-340.018060 362.136900 8.018060
-340.086163 360.139220 8.086163
-340.154266 358.141540 8.154266
-340.222368 356.143861 8.222368
-340.290471 354.146181 8.290471
-340.358574 352.148502 8.358574
-340.426677 350.150822 8.426677
-340.494779 348.153142 8.494779
-340.562882 346.155463 8.562882
-340.630985 344.157783 8.630985
-340.699087 342.160103 8.699087
-340.767190 340.162424 8.767190
-340.835293 338.164744 8.835293
-340.903396 336.167064 8.903396
-340.971498 334.169385 8.971498
-341.039601 332.171705 9.039601
-341.107704 330.174025 9.107704
-341.175806 328.176346 9.175806
-341.243909 326.178666 9.243909
-341.312012 324.180986 9.312012
-341.380115 322.183307 9.380115
-341.448217 320.185627 9.448217
-341.516320 318.187947 9.516320
-341.584423 316.190268 9.584423
-341.652525 314.192588 9.652525
-341.720628 312.194908 9.720628
-341.788731 310.197229 9.788731
-341.856834 308.199549 9.856834
-341.924936 306.201869 9.924936
-341.993039 304.204190 9.993039
-342.061142 302.206510 10.061142
-342.129244 300.208830 10.129244
-342.197347 298.211151 10.197347
-342.265450 296.213471 10.265450
-342.333553 294.215791 10.333553
-342.401655 292.218112 10.401655
-342.469758 290.220432 10.469758
-342.537861 288.222752 10.537861
-342.605963 286.225073 10.605963
-342.674066 284.227393 10.674066
-342.742169 282.229713 10.742169
-342.810272 280.232034 10.810272
-342.878374 278.234354 10.878374
-342.946477 276.236674 10.946477
-343.014580 274.238995 11.014580
-343.082682 272.241315 11.082682
-343.150785 270.243635 11.150785
-343.218888 268.245956 11.218888
-343.286991 266.248276 11.286991
-343.355093 264.250596 11.355093
-343.423196 262.252917 11.423196
-343.491299 260.255237 11.491299
-343.559401 258.257557 11.559401
-343.627504 256.259878 11.627504
-343.695607 254.262198 11.695607
-343.763710 252.264518 11.763710
-343.831812 250.266839 11.831812
-343.899915 248.269159 11.899915
-343.968018 246.271479 11.968018
-344.036120 244.273800 12.036120
-344.104223 242.276120 12.104223
-344.172326 240.278440 12.172326
-344.240429 238.280761 12.240429
-344.308531 236.283081 12.308531
-344.376634 234.285401 12.376634
-344.444737 232.287722 12.444737
-344.512839 230.290042 12.512839
-344.580942 228.292362 12.580942
-344.649045 226.294683 12.649045
-344.717148 224.297003 12.717148
-344.785250 222.299323 12.785250
-344.853353 220.301644 12.853353
-344.921456 218.303964 12.921456
-344.989558 216.306284 12.989558
-345.057661 214.308605 13.057661
-345.125764 212.310925 13.125764
-345.193867 210.313245 13.193867
-345.261969 208.315566 13.261969
-345.330072 206.317886 13.330072
-345.398175 204.320206 13.398175
-345.466277 202.322527 13.466277
-345.534380 200.324847 13.534380
-345.602483 198.327167 13.602483
-345.670586 196.329488 13.670586
-345.738688 194.331808 13.738688
